# .PCD v.5 - Point Cloud Data file format
FIELDS x y z intensity distance sid
SIZE 4 4 4 4 4 4
TYPE F F F F F F
COUNT 1 1 1 1 1 1
WIDTH 10
HEIGHT 10
POINTS 100
DATA ascii
-0.93387 -0.6825 -1.1865 12 1.485 7
-0.93173 -0.68323 -1.1878 10 1.485 8
NaN NaN NaN NaN NaN NaN
-0.91748 -0.67961 -1.1815 10 1.471 11
-0.91479 -0.6799 -1.182 12 1.47 12
-0.90031 -0.68289 -1.1872 10 1.467 18
-0.89271 -0.67941 -1.1811 12 1.457 19
-0.87805 -0.67048 -1.1656 8 1.434 20
-0.88793 -0.68274 -1.1869 2 1.46 22
-0.88579 -0.68342 -1.1881 14 1.46 23
-0.83723 -0.68264 -1.1868 12 1.433 39
-0.77697 -0.66041 -1.1481 18 1.364 51
-0.78435 -0.66922 -1.1634 32 1.383 52
-0.76995 -0.67613 -1.1754 24 1.388 60
-0.74913 -0.68233 -1.1862 12 1.389 70
-0.74652 -0.68246 -1.1864 12 1.388 71
-0.71868 -0.68179 -1.1853 18 1.374 81
-0.64797 -0.68207 -1.1858 16 1.344 108
-0.63136 -0.68356 -1.1883 14 1.34 115
-0.60952 -0.6817 -1.1851 18 1.328 123
-0.60777 -0.6826 -1.1867 18 1.329 124
-0.58407 -0.68417 -1.1894 18 1.323 134
-0.56901 -0.68389 -1.1889 20 1.317 140
-0.56686 -0.6843 -1.1896 18 1.317 141
-0.51878 -0.68502 -1.1909 16 1.302 161
-0.44314 -0.68477 -1.1904 24 1.279 193
-0.43028 -0.6824 -1.1863 18 1.271 198
-0.41591 -0.68121 -1.1843 18 1.265 204
-0.40069 -0.68262 -1.1867 16 1.264 211
-0.33536 -0.68216 -1.1859 20 1.249 240
-0.32341 -0.68582 -1.1923 16 1.254 246
-0.29379 -0.6833 -1.1879 22 1.244 259
-0.28121 -0.68528 -1.1913 20 1.246 265
-0.25902 -0.68432 -1.1897 20 1.241 275
-0.24565 -0.68315 -1.1876 20 1.237 281
-0.21794 -0.68567 -1.192 18 1.239 294
-0.17225 -0.68398 -1.1891 22 1.232 315
-0.13779 -0.6833 -1.1879 18 1.229 331
-0.13586 -0.68682 -1.194 20 1.236 332
-0.13371 -0.68685 -1.1941 18 1.236 333
-0.13158 -0.68738 -1.195 22 1.237 334
-0.12709 -0.68395 -1.189 22 1.23 336
-0.11215 -0.68758 -1.1953 20 1.237 343
-0.10133 -0.68363 -1.1885 22 1.229 348
-0.045363 -0.68559 -1.1919 22 1.234 374
-0.017341 -0.68534 -1.1914 22 1.235 387
-0.0024433 -0.68382 -1.1888 20 1.233 394
0.019468 -0.68538 -1.1915 24 1.238 404
0.06103 -0.68609 -1.1927 24 1.244 423
0.13024 -0.68828 -1.1966 28 1.259 454
0.13492 -0.68886 -1.1976 26 1.261 456
0.13505 -0.68327 -1.1878 26 1.25 457
0.17633 -0.68566 -1.192 24 1.263 475
0.21357 -0.68742 -1.1951 24 1.275 491
0.25175 -0.68543 -1.1916 22 1.281 508
0.26258 -0.68804 -1.1961 20 1.289 512
0.2669 -0.68741 -1.195 20 1.289 514
0.27121 -0.68677 -1.1939 22 1.289 516
0.28502 -0.68624 -1.193 20 1.292 522
0.28687 -0.68543 -1.1916 24 1.291 523
0.30869 -0.68614 -1.1928 24 1.299 532
0.31825 -0.68613 -1.1928 24 1.302 536
0.39257 -0.68743 -1.1951 22 1.33 566
0.41169 -0.68627 -1.1931 20 1.335 574
0.42417 -0.68908 -1.1979 20 1.345 578
0.4336 -0.68817 -1.1964 22 1.347 582
0.44463 -0.68905 -1.1979 22 1.353 586
0.45057 -0.68992 -1.1994 20 1.357 588
0.45274 -0.68945 -1.1986 24 1.357 589
0.46786 -0.68605 -1.1927 18 1.357 596
0.47768 -0.68819 -1.1964 20 1.365 599
0.49146 -0.68882 -1.1975 20 1.372 604
0.50964 -0.68832 -1.1966 18 1.379 611
0.64657 -0.69036 -1.2002 20 1.448 659
0.70252 -0.68947 -1.1986 12 1.476 678
-0.9524 -0.68219 -1.186 12 1.495 1
-0.93488 -0.68095 -1.1838 10 1.483 6
-0.93162 -0.68085 -1.1836 12 1.481 7
-0.91869 -0.6828 -1.187 10 1.477 12
-0.90086 -0.68331 -1.1879 6 1.468 18
-0.88506 -0.67356 -1.171 2 1.443 19
-0.88203 -0.68285 -1.1871 12 1.457 24
-0.86224 -0.68142 -1.1846 12 1.444 30
-0.78929 -0.65915 -1.1459 16 1.368 46
-0.77434 -0.67263 -1.1693 30 1.384 57
-0.77224 -0.67321 -1.1704 24 1.384 58
-0.7541 -0.6844 -1.1898 12 1.395 69
-0.75289 -0.68586 -1.1923 14 1.397 70
-0.74084 -0.68226 -1.1861 14 1.385 73
-0.71733 -0.68046 -1.183 14 1.371 81
-0.71011 -0.68394 -1.189 14 1.374 85
-0.70752 -0.68403 -1.1892 12 1.373 86
-0.69454 -0.68166 -1.185 14 1.363 90
-0.65687 -0.68335 -1.188 14 1.35 105
-0.62588 -0.68311 -1.1876 14 1.337 117
-0.61749 -0.68219 -1.186 14 1.332 120
-0.61166 -0.68125 -1.1843 18 1.328 122
-0.59944 -0.68162 -1.185 14 1.324 127
-0.59843 -0.68344 -1.1881 14 1.327 128
-0.58155 -0.68413 -1.1893 14 1.322 135